91.239998 -72.139999 16.600000 0.013906 0.002619 0.999900
85.519997 -72.180000 16.690001 0.015349 0.002854 0.999878
79.790001 -72.239998 16.780001 0.016678 0.003096 0.999856
74.070000 -72.300003 16.879999 0.016772 0.003275 0.999854
68.410004 -72.370003 16.980000 0.018841 0.003487 0.999816
62.680000 -72.440002 17.090000 0.020024 0.003742 0.999793
56.959999 -72.529999 17.209999 0.021164 0.003997 0.999768
51.240002 -72.620003 17.330000 0.021123 0.004190 0.999768
45.580002 -72.730003 17.469999 0.023788 0.004435 0.999707
39.849998 -72.839996 17.610001 0.024699 0.004713 0.999684
34.130001 -72.959999 17.750000 0.025665 0.005013 0.999658
28.410000 -73.089996 17.900000 0.025737 0.005233 0.999655
22.740000 -73.220001 18.059999 0.027223 0.005515 0.999614
17.020000 -73.360001 18.209999 0.027915 0.005848 0.999593
11.300000 -73.510002 18.379999 0.028636 0.006216 0.999571
5.570000 -73.669998 18.540001 0.028746 0.006503 0.999566
-0.090000 -73.830002 18.709999 0.028803 0.006876 0.999561
-5.820000 -74.000000 18.870001 0.023241 0.007232 0.999704
-11.580000 -74.160004 18.980000 0.014495 0.007677 0.999865
-17.360001 -74.320000 19.040001 0.011181 0.008205 0.999904
-23.049999 -74.430000 19.070000 0.002264 0.008497 0.999961
-28.780001 -74.510002 19.070000 -0.000078 0.009037 0.999959
-34.509998 -74.540001 19.070000 0.000069 0.009579 0.999954
-40.240002 -74.500000 19.070000 0.000060 0.009986 0.999950
-45.900002 -74.400002 19.070000 0.000194 0.010390 0.999946
-51.630001 -74.230003 19.070000 0.000419 0.010890 0.999941
-57.349998 -73.959999 19.070000 0.000729 0.011385 0.999935
-63.070000 -73.550003 19.070000 0.000846 0.011784 0.999930
-68.709999 -73.040001 19.070000 0.001294 0.012152 0.999925
-74.379997 -72.279999 19.070000 0.001873 0.012645 0.999918
-80.029999 -71.360001 19.070000 0.002851 0.013075 0.999910
-85.559998 -69.910004 19.070000 0.003519 0.013462 0.999903
-90.980003 -68.330002 19.070000 0.004881 0.013553 0.999896
-96.220001 -66.019997 19.070000 0.006082 0.013768 0.999887
-101.449997 -63.700001 19.070000 0.006448 0.014211 0.999878
-106.669998 -61.330002 19.070000 0.006594 0.014518 0.999873
-111.830002 -58.980000 19.070000 0.006710 0.014829 0.999868
-117.040001 -56.610001 19.070000 0.006896 0.015148 0.999861
-122.260002 -54.230000 19.070000 0.007597 0.015498 0.999851
-127.419998 -51.880001 19.080000 0.006765 0.017014 0.999832
-132.630005 -49.509998 19.070000 0.006899 0.016356 0.999843
-137.850006 -47.139999 19.070000 0.007383 0.016217 0.999841
-143.059998 -44.759998 19.070000 0.007533 0.016484 0.999836
-148.279999 -42.389999 19.070000 0.007596 0.016732 0.999831
-153.440002 -40.040001 19.070000 0.007680 0.016964 0.999827
-158.649994 -37.669998 19.070000 0.007845 0.017238 0.999821
-163.869995 -35.290001 19.070000 0.008012 0.017520 0.999815
-169.080002 -32.919998 19.070000 0.008092 0.017778 0.999809
-174.240005 -30.570000 19.070000 0.008164 0.018052 0.999804
-179.460007 -28.200001 19.070000 0.008360 0.018383 0.999796
-184.669998 -25.820000 19.070000 0.008640 0.018746 0.999787
-189.820007 -23.450001 19.070000 0.008869 0.019063 0.999779
-195.009995 -21.030001 19.070000 0.009761 0.019150 0.999769
-199.979996 -18.230000 19.070000 0.011554 0.018859 0.999755
-204.729996 -15.070000 19.070000 0.013442 0.018352 0.999741
-209.139999 -11.580000 19.070000 0.016193 0.016644 0.999730
-213.229996 -7.590000 19.070000 0.017024 0.016342 0.999722
-217.009995 -3.340000 19.070000 0.018910 0.014903 0.999710
-220.279999 1.340000 19.070000 0.020581 0.013388 0.999699
-223.220001 6.140000 19.070000 0.022820 0.010061 0.999689
-225.509995 11.360000 19.070000 0.023338 0.009629 0.999681
-227.529999 16.670000 19.070000 0.024584 0.007214 0.999672
-228.720001 22.250000 19.070000 0.025624 0.004852 0.999660
-229.669998 27.799999 19.070000 0.026499 -0.000411 0.999649
-229.589996 33.509998 19.070000 0.026689 -0.000597 0.999644
-229.380005 39.200001 19.070000 0.026741 -0.003472 0.999636
-228.139999 44.779999 19.070000 0.026680 -0.006053 0.999626
-226.880005 50.290001 19.070000 0.025728 -0.010248 0.999617
-224.770004 55.610001 19.070000 0.025939 -0.010255 0.999611
-222.660004 60.930000 19.070000 0.025296 -0.012285 0.999605
-219.770004 65.879997 19.070000 0.024517 -0.014345 0.999596
-216.910004 70.760002 19.070000 0.020392 -0.020467 0.999583
-212.949997 74.709999 19.070000 0.020374 -0.020719 0.999578
-208.880005 78.580002 19.070000 0.016257 -0.024276 0.999573
-203.750000 80.919998 19.070000 0.011574 -0.027365 0.999559
-198.490005 82.980003 19.070000 0.008561 -0.028743 0.999550
-193.009995 84.610001 19.070000 0.008321 -0.029035 0.999544
-187.479996 86.120003 19.070000 0.007557 -0.029532 0.999535
-181.919998 87.449997 19.070000 0.006972 -0.029921 0.999528
-176.389999 88.699997 19.070000 0.006479 -0.030259 0.999521
-170.789993 89.900002 19.070000 0.006452 -0.030461 0.999515
-165.179993 91.059998 19.070000 0.006427 -0.030709 0.999508
-159.570007 92.250000 19.070000 0.006533 -0.030915 0.999501
-154.020004 93.430000 19.070000 0.006773 -0.031036 0.999495
-148.429993 94.650002 19.070000 0.006884 -0.031193 0.999490
-142.830002 95.889999 19.070000 0.007148 -0.031355 0.999483
-137.250000 97.190002 19.070000 0.007577 -0.031474 0.999476
-131.750000 98.559998 19.070000 0.008278 -0.031462 0.999471
-126.209999 100.019997 19.070000 0.008683 -0.031524 0.999465
-120.699997 101.599998 19.070000 0.009201 -0.031600 0.999458
-115.199997 103.220001 19.070000 0.009686 -0.031676 0.999451
-109.800003 104.940002 19.070000 0.010629 -0.031545 0.999446
-104.370003 106.769997 19.070000 0.011524 -0.031397 0.999441
-99.040001 108.879997 19.070000 0.012616 -0.031206 0.999433
-93.739998 111.059998 19.070000 0.013772 -0.030941 0.999426
-88.639999 113.510002 19.070000 0.014999 -0.030550 0.999421
-83.500000 116.029999 19.070000 0.016030 -0.030211 0.999415
-78.519997 118.870003 19.070000 0.017173 -0.029856 0.999407
-73.570000 121.739998 19.070000 0.018753 -0.030771 0.999350
-69.040001 125.150002 19.070000 -0.023682 -0.069106 0.997328
-64.470001 128.610001 19.420000 -0.024583 -0.118720 0.992623
-60.500000 132.729996 20.240000 -0.026084 -0.194497 0.980556
-56.450001 136.789993 21.240000 0.010564 -0.257606 0.966192
-52.660000 141.070007 22.270000 0.084503 -0.275152 0.957680
-48.689999 145.330002 23.150000 0.161862 -0.296044 0.941360
-44.849998 149.710007 23.790001 0.262396 -0.327134 0.907817
-41.049999 154.119995 24.090000 0.365344 -0.347111 0.863734
-37.389999 158.539993 24.030001 0.481523 -0.301647 0.822888
-33.900002 163.110001 23.660000 0.543292 -0.301311 0.783611
-30.660000 167.820007 23.100000 0.608665 -0.292155 0.737680
-27.719999 172.679993 22.370001 0.651899 -0.263347 0.711109
-25.059999 177.610001 21.570000 0.677457 -0.234105 0.697314
-22.459999 182.649994 20.740000 0.677705 -0.234157 0.697055
-19.870001 187.699997 19.920000 0.677960 -0.234298 0.696760
-17.290001 192.750000 19.100000 0.678196 -0.234416 0.696490
-14.740000 197.750000 18.299999 0.678425 -0.234399 0.696274
-12.170000 202.809998 17.500000 0.678602 -0.234445 0.696085
-9.610000 207.869995 16.709999 0.672744 -0.243605 0.698622
-6.920000 212.880005 15.930000 0.646499 -0.260275 0.717144
-3.950000 217.690002 15.210000 0.581802 -0.320911 0.747344
-0.610000 222.380005 14.620000 0.522581 -0.329883 0.786185
3.180000 226.789993 14.170000 0.430195 -0.338658 0.836805
7.480000 230.850006 13.910000 0.326946 -0.337143 0.882860
12.100000 234.529999 14.000000 0.168709 -0.388374 0.905927
17.400000 237.539993 14.300000 0.105279 -0.369527 0.923237
22.680000 240.440002 15.080000 0.016322 -0.350224 0.936524
28.170000 242.809998 16.090000 -0.049017 -0.318839 0.946540
33.500000 245.149994 17.270000 -0.078510 -0.259655 0.962505
39.000000 246.990005 18.320000 -0.104494 -0.208126 0.972504
44.439999 248.809998 19.000000 -0.034880 -0.099956 0.994380
50.029999 249.990005 19.070000 0.005711 -0.047373 0.998861
55.570000 251.160004 19.070000 0.004016 -0.046220 0.998923
61.270000 251.660004 19.070000 0.004162 -0.046383 0.998915
66.959999 252.169998 19.070000 0.001408 -0.046793 0.998904
72.669998 252.009995 19.070000 -0.001459 -0.047160 0.998886
78.330002 251.820007 19.070000 -0.006879 -0.047006 0.998871
83.980003 251.000000 19.070000 -0.007217 -0.047173 0.998861
89.629997 250.080002 19.070000 -0.010363 -0.046832 0.998849
95.120003 248.520004 19.070000 -0.013798 -0.046246 0.998835
100.519997 246.830002 19.070000 -0.019183 -0.044633 0.998819
105.769997 244.589996 19.070000 -0.019956 -0.044447 0.998812
110.930000 242.149994 19.070000 -0.022884 -0.043278 0.998801
115.839996 239.259995 19.070000 -0.025872 -0.041908 0.998786
120.580002 236.190002 19.070000 -0.030917 -0.038710 0.998772
125.019997 232.660004 19.070000 -0.032167 -0.037806 0.998767
129.220001 228.830002 19.070000 -0.034520 -0.035912 0.998759
133.220001 224.779999 19.070000 -0.036365 -0.034253 0.998751
137.000000 220.570007 19.070000 -0.037304 -0.033498 0.998742
140.830002 216.320007 19.070000 -0.037395 -0.033822 0.998728
144.660004 212.070007 19.070000 -0.039808 -0.030894 0.998730
147.759995 207.410004 19.070000 -0.044562 -0.023241 0.998736
149.809998 202.220001 19.070000 -0.047422 -0.017446 0.998723
151.770004 196.899994 19.070000 -0.047899 -0.016465 0.998716
153.500000 191.460007 19.070000 -0.049168 -0.012972 0.998706
154.649994 185.979996 19.070000 -0.050594 -0.003849 0.998712
154.350006 180.479996 19.070000 -0.050974 0.004254 0.998691
153.889999 174.910004 19.070000 -0.050688 0.006947 0.998690
152.809998 169.300003 19.070000 -0.050229 0.010675 0.998681
151.520004 163.779999 19.070000 -0.048219 0.017605 0.998682
149.009995 158.800003 19.070000 -0.045931 0.023680 0.998664
146.419998 153.789993 19.070000 -0.044740 0.025945 0.998662
143.320007 148.990005 19.070000 -0.043511 0.028206 0.998655
140.199997 144.199997 19.070000 -0.041885 0.030701 0.998651
136.630005 139.860001 19.070000 -0.040243 0.033039 0.998644
133.029999 135.470001 19.070000 -0.038193 0.035520 0.998639
128.889999 131.529999 19.070000 -0.035956 0.038052 0.998629
124.709999 127.620003 19.070000 -0.035874 0.038230 0.998625
120.580002 123.739998 19.070000 -0.035938 0.038295 0.998620
116.410004 119.820000 19.070000 -0.033865 0.040225 0.998617
111.849998 116.389999 19.070000 -0.031234 0.042517 0.998607
107.199997 113.059998 19.070000 -0.030413 0.043227 0.998602
102.540001 109.839996 19.070000 -0.029883 0.043674 0.998599
97.820000 106.610001 19.070000 -0.036082 0.042723 0.998435
93.089996 103.360001 19.030001 -0.053379 0.053323 0.997150
88.389999 100.089996 18.969999 -0.072871 0.102903 0.992019
83.559998 97.120003 18.920000 -0.093184 0.158377 0.982972
78.580002 94.290001 18.900000 -0.135599 0.221504 0.965686
73.589996 91.470001 18.950001 -0.162367 0.318114 0.934045
68.580002 88.669998 19.059999 -0.185484 0.405386 0.895130
63.610001 85.949997 19.230000 -0.211668 0.457141 0.863840
58.570000 83.230003 19.440001 -0.228702 0.487612 0.842573
53.450001 80.669998 19.549999 -0.234199 0.510795 0.827187
48.240002 78.290001 19.530001 -0.237083 0.511793 0.825748
43.080002 75.959999 19.490000 -0.236581 0.512088 0.825709
37.840000 73.639999 19.430000 -0.236607 0.512148 0.825664
32.610001 71.320000 19.370001 -0.236628 0.512228 0.825609
27.370001 69.000000 19.299999 -0.236398 0.512425 0.825553
22.170000 66.750000 19.209999 -0.234455 0.513300 0.825563
16.860001 64.629997 19.020000 -0.234394 0.513395 0.825521
11.530000 62.529999 18.809999 -0.228636 0.513624 0.826992
6.160000 60.549999 18.559999 -0.217077 0.493049 0.842484
0.820000 58.660000 18.370001 -0.176463 0.470397 0.864632
-4.610000 56.799999 18.270000 -0.139392 0.421296 0.896147
-10.060000 55.000000 18.290001 -0.098749 0.342949 0.934149
-15.580000 53.389999 18.379999 -0.060697 0.254348 0.965206
-21.030001 51.790001 18.570000 -0.011123 0.192072 0.981318
-26.570000 50.290001 18.799999 0.009405 0.136382 0.990612
-32.099998 48.750000 19.000000 0.000084 0.076933 0.997036
-37.610001 47.169998 19.070000 -0.011505 0.055741 0.998379
-43.049999 45.610001 19.070000 -0.012861 0.054016 0.998457
-48.619999 44.279999 19.070000 -0.012634 0.054158 0.998452
-54.200001 43.009998 19.070000 -0.011965 0.054439 0.998445
-59.799999 41.830002 19.070000 -0.011429 0.054699 0.998438
-65.349998 40.680000 19.070000 -0.009987 0.055078 0.998432
-70.980003 39.660000 19.070000 -0.009733 0.055241 0.998426
-76.610001 38.700001 19.070000 -0.008054 0.055642 0.998418
-82.290001 38.020000 19.070000 -0.005870 0.056081 0.998409
-87.930000 37.509998 19.070000 -0.003793 0.056448 0.998398
-93.639999 37.119999 19.070000 -0.003405 0.056636 0.998389
-99.349998 36.840000 19.070000 -0.002275 0.056938 0.998375
-105.070000 36.669998 19.070000 -0.001037 0.057346 0.998354
-110.739998 36.630001 19.070000 -0.001446 0.057680 0.998334
-116.470001 36.480000 19.070000 -0.002189 0.058044 0.998312
-122.199997 36.209999 19.070000 -0.003891 0.058499 0.998280
-127.910004 35.730000 19.070000 -0.006764 0.058854 0.998244
-133.529999 34.900002 19.070000 -0.013508 0.058248 0.998211
-139.070007 33.619999 19.070000 -0.019374 0.057095 0.998181
-144.289993 31.270000 19.070000 -0.028445 0.054335 0.998118
-149.100006 28.420000 19.070000 -0.040871 0.046577 0.998078
-152.559998 23.980000 19.059999 -0.043713 0.047359 0.997921
-155.720001 19.389999 19.139999 -0.036255 0.072687 0.996696
-157.250000 14.250000 19.610001 -0.026722 0.106697 0.993932
-158.660004 9.100000 20.160000 -0.012671 0.187231 0.982234
-158.779999 3.850000 21.590000 -0.004807 0.263273 0.964710
-158.889999 -1.460000 23.040001 -0.006060 0.289653 0.957112
-158.009995 -6.800000 24.820000 -0.008810 0.315269 0.948961
-157.130005 -12.150000 26.610001 -0.007192 0.305788 0.952072
-155.550003 -17.430000 28.250000 -0.004746 0.295453 0.955345
-153.940002 -22.760000 29.910000 0.004489 0.266809 0.963739
-151.830002 -28.110001 31.190001 0.003742 0.270455 0.962725
-149.660004 -33.450001 32.880001 -0.036209 0.335637 0.941295
-147.160004 -38.730000 35.150002 -0.029186 0.304695 0.952003
-144.570007 -44.070000 36.939999 0.002020 0.237490 0.971388
-141.910004 -49.369999 37.790001 0.062506 0.123196 0.990412
-139.220001 -54.669998 37.930000 0.116520 -0.022583 0.992932
-136.679993 -59.860001 36.840000 0.199271 -0.272813 0.941204
-134.149994 -65.089996 34.790001 0.189088 -0.232178 0.954117
-131.649994 -70.269997 33.320000 0.227971 -0.246755 0.941882
-129.169998 -75.419998 30.920000 0.233610 -0.265826 0.935288
-126.699997 -80.449997 29.190001 0.185105 -0.144054 0.972103
-124.190002 -85.500000 27.959999 0.188075 -0.137364 0.972502
-121.610001 -90.489998 26.809999 0.186080 -0.130288 0.973858
-118.989998 -95.440002 25.639999 0.184693 -0.128598 0.974347
-116.309998 -100.269997 24.510000 0.179525 -0.120082 0.976397
-113.500000 -105.089996 23.400000 0.175834 -0.114535 0.977734
-110.580002 -109.830002 22.360001 0.165958 -0.099551 0.981095
-107.470001 -114.440002 21.430000 0.154704 -0.083385 0.984436
-104.290001 -118.919998 20.600000 0.127422 -0.046937 0.990737
-100.849998 -123.269997 19.950001 0.120364 -0.038879 0.991968
-97.279999 -127.519997 19.410000 0.090591 -0.005597 0.995872
-93.320000 -131.460007 19.219999 0.064228 0.021541 0.997703
-89.349998 -135.320007 19.059999 0.038388 0.044769 0.998259
-85.029999 -139.050003 19.059999 0.038203 0.044353 0.998285
-80.699997 -142.750000 19.059999 0.036777 0.044956 0.998312
-76.190002 -146.279999 19.059999 0.035403 0.045416 0.998341
-71.730003 -149.770004 19.059999 0.033130 0.046637 0.998362
-67.070000 -153.080002 19.059999 0.032936 0.046278 0.998385
-62.400002 -156.399994 19.059999 0.031228 0.046815 0.998415
-57.549999 -159.429993 19.059999 0.029464 0.047338 0.998444
-52.750000 -162.429993 19.059999 0.026299 0.048711 0.998467
-47.720001 -165.149994 19.059999 0.025975 0.048363 0.998492
-42.669998 -167.830002 19.059999 0.023775 0.048832 0.998524
-37.450001 -170.149994 19.059999 0.021393 0.049309 0.998555
-32.250000 -172.369995 19.059999 0.016705 0.050637 0.998577
-26.830000 -174.160004 19.059999 0.016003 0.050382 0.998602
-21.360001 -175.820007 19.059999 0.013991 0.050439 0.998629
-15.810000 -177.229996 19.059999 0.012317 0.050648 0.998641
-10.300000 -178.520004 19.059999 0.015466 0.049784 0.998640
-4.720000 -179.830002 19.040001 0.030419 0.054165 0.998069
0.860000 -181.169998 18.830000 0.064934 0.078168 0.994823
6.430000 -182.520004 18.510000 0.098124 0.131040 0.986509
11.950000 -183.889999 18.180000 0.092039 0.189346 0.977587
17.559999 -185.169998 17.900000 0.088036 0.256435 0.962544
23.190001 -186.339996 17.700001 0.093129 0.340462 0.935635
28.820000 -187.509995 17.639999 0.094104 0.421766 0.901808
34.389999 -188.619995 17.730000 0.058172 0.486473 0.871757
40.040001 -189.649994 17.930000 0.050090 0.532978 0.844645
45.689999 -190.580002 18.200001 0.049600 0.576758 0.815408
51.349998 -191.410004 18.490000 0.040979 0.597007 0.801189
56.980000 -192.039993 18.719999 0.031493 0.605231 0.795426
62.669998 -192.649994 18.959999 0.031487 0.605157 0.795483
68.360001 -193.259995 19.200001 0.031289 0.605085 0.795546
74.050003 -193.839996 19.410000 0.030325 0.605075 0.795591
79.690002 -194.270004 19.530001 0.029429 0.605071 0.795627
85.400002 -194.690002 19.639999 0.028892 0.605028 0.795680
91.120003 -195.020004 19.680000 0.028305 0.604962 0.795752
96.839996 -195.330002 19.719999 0.028022 0.604892 0.795814
102.500000 -195.600006 19.730000 0.035433 0.604586 0.795751
108.220001 -195.869995 19.680000 0.038424 0.615630 0.787098
113.940002 -195.880005 19.370001 0.044663 0.636697 0.769820
119.680000 -195.910004 19.070000 0.043263 0.663500 0.746925
125.360001 -195.949997 18.870001 0.009480 0.681749 0.731525
131.100006 -195.970001 18.820000 -0.005950 0.691686 0.722174
136.839996 -195.669998 18.700001 -0.036114 0.702058 0.711203
142.570007 -195.259995 18.700001 -0.068856 0.705032 0.705825
148.229996 -194.740005 18.860001 -0.109719 0.700393 0.705274
153.929993 -194.130005 19.129999 -0.119131 0.688756 0.715138
159.589996 -193.169998 19.250000 -0.133504 0.667172 0.732843
165.220001 -192.059998 19.299999 -0.135096 0.640368 0.756094
170.779999 -190.940002 19.280001 -0.102084 0.626140 0.772999
176.389999 -189.860001 19.150000 -0.103303 0.619582 0.778105
181.940002 -188.539993 18.879999 -0.115642 0.595982 0.794627
187.440002 -186.979996 18.610001 -0.130692 0.595650 0.792541
192.800003 -185.190002 18.309999 -0.224987 0.595218 0.771425
198.210007 -183.240005 18.389999 -0.295541 0.611533 0.733951
203.529999 -181.039993 19.049999 -0.387799 0.602898 0.697228
208.639999 -178.410004 20.080000 -0.456564 0.536229 0.709935
213.479996 -175.440002 21.170000 -0.485481 0.462401 0.741952
218.089996 -171.979996 22.030001 -0.488188 0.426616 0.761362
222.399994 -168.210007 22.900000 -0.514024 0.370628 0.773572
226.250000 -163.949997 23.670000 -0.518100 0.266866 0.812622
229.779999 -159.619995 24.639999 -0.501419 0.123020 0.856414
232.520004 -154.690002 25.480000 -0.467485 0.091340 0.879270
234.850006 -149.610001 26.510000 -0.468473 0.042456 0.882457
236.130005 -144.080002 26.969999 -0.475681 0.054535 0.877926
237.460007 -138.589996 27.120001 -0.491021 0.065286 0.868698
238.000000 -132.899994 27.000000 -0.540461 0.072719 0.838221
238.410004 -127.239998 26.629999 -0.561443 0.093886 0.822172
237.649994 -121.610001 25.709999 -0.519299 0.044516 0.853432
236.630005 -116.029999 25.020000 -0.427404 -0.064672 0.901744
233.919998 -110.849998 24.110001 -0.380008 -0.062532 0.922867
231.080002 -105.739998 23.559999 -0.254950 -0.035751 0.966293
227.190002 -101.470001 22.700001 -0.163625 0.058301 0.984798
223.289993 -97.410004 21.670000 -0.071291 0.140913 0.987452
218.639999 -94.110001 20.860001 -0.045447 0.170499 0.984309
213.949997 -90.860001 20.080000 -0.036637 0.179608 0.983056
209.020004 -88.050003 19.280001 -0.068050 0.159282 0.984885
204.100006 -85.320000 18.480000 -0.090832 0.112475 0.989494
198.869995 -83.070000 17.799999 -0.073903 0.079673 0.994078
193.529999 -81.050003 17.280001 -0.061831 0.050964 0.996785
188.070007 -79.370003 16.940001 -0.043125 0.021464 0.998839
182.610001 -77.879997 16.780001 -0.017860 0.001654 0.999839
177.029999 -76.650002 16.680000 -0.017009 0.001452 0.999854
171.410004 -75.589996 16.590000 -0.014754 0.001206 0.999890
165.759995 -74.709999 16.510000 -0.012557 0.001105 0.999921
160.149994 -73.989998 16.450001 -0.009649 0.000928 0.999953
154.470001 -73.379997 16.389999 -0.008537 0.001011 0.999963
148.770004 -72.919998 16.350000 -0.006568 0.001061 0.999978
143.059998 -72.550003 16.309999 -0.004536 0.001118 0.999989
137.410004 -72.320000 16.290001 -0.001141 0.001102 0.999999
136.889999 -72.300003 16.290001 -0.001952 0.001149 0.999997
131.690002 -72.160004 16.290001 0.001028 0.001209 0.999999
131.179993 -72.160004 16.290001 0.001348 0.001244 0.999998
125.970001 -72.129997 16.309999 0.003695 0.001394 0.999992
125.449997 -72.120003 16.309999 0.003889 0.001421 0.999991
120.250000 -72.099998 16.330000 0.005327 0.001631 0.999985
119.730003 -72.099998 16.330000 0.004377 0.001582 0.999989
114.070000 -72.080002 16.370001 0.006890 0.001802 0.999975
108.349998 -72.080002 16.410000 0.008458 0.002032 0.999962
102.629997 -72.089996 16.469999 0.010057 0.002250 0.999947
96.900002 -72.099998 16.530001 0.010529 0.002422 0.999942